# 3D point list with one line of data per point:
#   POINT3D_ID, X, Y, Z, R, G, B, ERROR, TRACK[] as (IMAGE_ID, POINT2D_IDX)
# Number of points: 376, mean track length: 5.2434153899122053
3233 -0.53779886168264346 2.1229937568322383 2.4317582909126507 88 58 48 2.1692808734283666 21 1189 45 1100 29 1190 20 1134 8 1303 88 1277 7 1135 56 1116 44 1184 16 1093 71 1038
3234 -0.94279770127331486 2.7790445357462832 1.4912542303331688 114 116 109 1.3989896893097569 26 1132 38 1160 94 1406 36 1255 54 1509 57 1300 3 1128 42 1112 82 1183 53 1551 91 1214 81 1079 93 1143 50 1355 60 1481 83 1319 77 1021 45 1025 42 1154 89 809
3235 -0.94011708503382385 2.6679472206024655 1.6014199036799679 124 124 115 1.3893191078096359 94 1279 54 1366 46 1496 60 1478 83 1263 77 1018 4 1114 26 1068 45 906 83 1015 4 1011 78 977 38 1036 21 1039 7 979
3236 0.86495271405470775 1.0982531586417665 1.9178885050521262 0 0 0 0.82131653340392974 47 1332 31 1150 65 1178 58 1093 45 1117 77 1117 29 1196 20 1139 8 1277 88 1253
3237 0.38542702142842106 0.90281404661153664 1.7296835142856766 153 136 45 0.25293317713596181 4 651 26 616 78 605 38 639 21 653 45 554 58 535 77 581
3238 -0.68141357005222525 1.6630413623565201 1.1698173468575881 175 137 44 0.4034545056427562 26 238 38 204 45 482 47 642 31 511 65 516 95 6
3240 1.0429411578508558 2.3294303795704079 1.8474459014812292 107 76 64 0.18957858585197893 4 463 64 85 43 73
3241 0.77750083625938116 2.4143927907800182 1.7170348372607931 35 24 21 0.10321673921038482 21 122 64 147 43 108
3242 0.77750083625938116 2.4143927907800182 1.7170348372607931 35 24 21 0.10321673921038482 21 123 64 148 43 109
3243 -0.70633444853246052 1.6513343023536087 1.2018935685191074 193 149 42 0.40797338061854083 21 525 64 193 7 78
3244 -0.81458688576543903 1.5906842858291093 1.3196414654962905 159 124 33 0.13605853611860608 4 246 64 201 43 98
3245 -0.60022933922607269 2.1383235519820833 1.4128422216321723 153 113 27 0.51207134729517501 21 248 64 255 7 198 69 202
3246 -0.56411643383824028 2.3717104483625593 2.1941616720870099 27 19 10 0.11693790510359597 38 232 64 272
3247 -0.78491906127582922 2.1802538820987594 1.3869759126773997 128 99 24 0.071104926744154154 4 327 64 278 43 235
3248 -0.33878365049864895 2.8440870647196421 1.2314877658611965 39 28 23 0.18750272239786855 26 290 64 313 69 338
3249 -0.93413354968009088 2.4558616464566509 2.0067718194349662 64 68 65 0.23118105187706553 21 341 64 331 69 359
3250 -0.93783669594963492 2.4504086642697005 2.0004216695879298 64 68 65 0.16117851358658472 21 342 64 332 43 630
3251 -0.97133976905259778 2.4403190315879844 2.0515445604697584 194 181 148 0.083588678581606846 21 344 64 335 7 327
3252 -0.97111864664059389 2.4461192404797956 2.0140552460659404 122 118 100 0.53539205818750679 21 345 64 339 43 634 69 610 7 832 2 209
3253 -0.81252245041777238 2.6538355550174719 1.6382788756414663 104 105 95 0.11014296151776325 21 340 64 355 43 324
3254 -1.1834877805932977 2.4087774279500005 2.1129349750314059 104 105 95 0.16032488786288288 21 367 64 370 43 323
3255 -1.0487447535844263 2.5832683017994795 1.8181131745878716 86 91 86 0.046988535063442416 21 365 64 379
3256 0.37237597475037132 1.0439823283122311 1.5597193734190813 121 97 25 0.46324515607190858 78 20 64 400 69 3
3258 -0.75451850759291506 1.6508123899946543 1.2117707885324858 165 128 33 0.13860476802361829 21 536 64 518 43 507
3259 -0.68433592062945436 1.7122977392919689 1.1049864643582705 151 123 33 0.19321996310015024 21 529 64 521 43 514
3260 -0.013493563449088995 2.6868837485099801 1.484836888480586 39 35 39 0.40855823641426448 78 743 64 564 5 509 92 545
3261 -0.48153847951154133 2.8430508726900494 1.2792611632411404 43 33 33 0.12617836073880592 21 591 64 605 7 586 69 598
3262 -1.0140771800469024 2.4103734195922115 2.0963564965798187 225 211 175 0.10318681582283437 21 620 64 607 43 631 7 637
3263 -1.0973780338011518 2.3992303068635401 2.1354657324786244 221 208 172 0.18666828801343718 21 626 64 613 43 643 69 618
3264 -1.0912294014450645 2.415586059190947 2.086312655673725 114 112 98 0.23081145883946591 21 629 64 615 43 646 69 619
3265 -1.0912294014450645 2.415586059190947 2.086312655673725 114 112 98 0.23081145883946591 21 630 64 616 43 647 69 620
3266 0.45733173951881045 1.068784587145255 1.4260077750829947 120 135 168 0.37797091222286078 21 654 64 643 7 358
3267 0.62966584921091506 1.2099355120490682 1.3653384536727151 116 103 30 0.45572961347223123 21 655 64 647 43 705 69 681
3268 -0.52004344194348762 1.5145211110760406 1.3963247334548117 254 233 77 0.3090571295528789 38 951 64 714 43 427
3269 -0.83142978965988235 1.7414532401928875 1.0858295946205927 253 228 73 0.10863542903571352 38 813 78 756 64 764 43 770
3270 -0.40031713061047808 2.1114919056167754 1.2829377909146116 198 163 56 0.21963045104955026 26 951 78 741 64 767
3271 -0.66605967162562618 2.112746050782274 1.4561793620572252 190 153 43 0.10724837895795254 21 805 64 781 43 799 7 532
3272 -0.73911011503122803 2.1566050346328032 1.4129259957938152 131 98 23 0.21570724394662183 21 816 64 794 7 765 69 521
3273 -0.77119894849983961 2.2324253868189765 1.3012822440829974 98 50 5 0.24275134391981831 21 821 64 801 43 817
3274 -0.70855212933556455 2.6359252010220127 1.6718671117257673 52 53 46 0.29639086663052988 21 839 64 829 43 851
3275 -0.71438733093507811 2.6557437490882183 1.6434206109449119 80 83 78 0.13766993195584115 21 840 64 834 43 853 36 719 69 604
3277 -1.0969999278517966 2.3464722192909266 2.1938933714889708 35 30 27 0.41308678689954859 4 842 78 789 64 840 98 649 4 997 95 548 5 238 92 282 85 60
3278 -1.1030303768626835 2.3424776208246234 2.1895882396946615 35 30 27 0.30196049056296331 4 843 64 841 43 842 69 797
3279 -0.77010122940668357 2.6739836218217539 1.6199347524947179 95 98 91 0.16132650309723939 21 612 64 846 43 867 7 624
3280 -0.83046040827829049 2.6949148151756321 1.594601293400526 108 110 101 0.088462210348988449 21 619 64 854 43 878
3281 -1.0064027680867298 2.545631437989841 1.8706818345803877 126 124 112 0.17604799598821752 21 872 38 850 64 855
3282 -0.79478960806961862 2.7274291948645408 1.542729131863724 115 116 106 0.11365150472954168 4 876 64 856 43 880
3283 -0.65571382834795977 2.8481976247151466 1.3260624471867855 121 124 116 0.071331138278396058 21 847 64 864 7 810
3284 -1.1606352719373545 2.5545890034922292 1.8596318393778539 191 182 155 0.14266294018438694 21 883 64 887 43 890 7 854
3285 -1.1600074832705645 2.5547647902735 1.8605793486482836 191 182 155 0.10396319194038635 21 884 64 888 43 891
3286 -1.1240797800345024 2.5875161433689513 1.8101116017809595 189 179 152 0.060322411439032823 21 880 64 889 43 892
3287 0.33558646446646967 0.76282190390517468 1.8644535170607768 135 113 36 0.35984108514699692 4 897 64 902 43 906
3289 1.3566685819445277 2.2113297639340481 1.9533679253439882 149 101 78 0.020005180081268746 78 858 64 930
3291 -0.94592912863854273 2.0649792994697971 1.5565178873289425 86 58 10 0.37630281761382517 21 1014 64 988 43 979
3292 -0.79546482278554009 2.3628065729933065 1.3633557476922515 93 110 143 0.10387771070505065 21 831 64 998 43 992
3294 -0.39982273630041559 2.7630395717210301 1.2980124976620067 42 32 34 1.4626094103029343 26 967 64 1002 69 768
3295 0.47974271921103989 1.1225269974453804 1.3547401565209016 26 28 32 0.82560136290221131 21 904 64 1039 43 700
3296 -0.43790459949752902 2.8245651259671209 1.2879097686591874 39 30 30 0.40776225775240116 78 1064 64 1100 69 921
3297 -1.0391755798655287 2.4222108068407211 2.0854645030158152 226 210 172 0.069404200711157465 21 1123 64 1105 7 1046
3298 -1.1943132585516114 2.4341675458333198 2.072464738443716 227 212 174 0.50270559824019867 45 913 64 1109 98 804 95 714 55 658
3299 -0.94242260004985812 1.9625189128937868 1.5840622130427577 254 230 76 1.5531145321150743 21 1193 64 1144 43 1140
3300 -0.70136171963380844 2.2392231725656289 1.2135185479862447 143 121 35 0.36457970924726124 21 1162 64 1145 43 1143 7 1081
3301 0.2815406527181985 1.3686267346810261 1.3573424313582729 238 205 65 0.23641995100484639 21 1175 64 1158 43 1117
3302 -0.74726323588360422 2.1272554732444338 1.2292401980304268 108 0 0 0.25739361052020349 21 1160 64 1180 43 1169
3303 -0.84748443638984416 2.1208322903354517 1.4915812505666315 217 173 46 0.26804280992872903 21 1195 64 1183 43 1173
3304 -1.0150468327113911 2.3288767548330576 2.3211025885229639 156 112 91 2.2874534214603077 38 1193 64 1186 20 1135 62 800
3305 -1.0541540916181069 2.7713248157450403 1.5746350721265978 0 0 0 1.6147865661689378 77 1114 64 1191 53 1631 26 1176
3306 0.46345174638078929 1.2891613937110624 1.7662346490639429 0 0 0 1.3961115246365594 21 1173 64 1195 43 1186
3307 0.46345174638078929 1.2891613937110624 1.7662346490639429 0 0 0 1.3961115246365594 21 1174 64 1196 43 1187
3308 -1.1674604676656783 2.6361697000438284 1.7039542922503284 0 0 0 2.3536362279209393 77 1112 83 1314 64 1212
3309 0.043594691813399311 2.682015114391155 1.5114790279591435 80 89 91 1.6392281655856562 38 971 45 858 64 1177 26 1191 78 1150 5 980 92 996
3310 -1.0559646548213866 2.3112856734837082 2.1640948700022675 104 72 60 0.20026399796075095 4 837 78 576 45 517 64 827 78 783 38 837 21 859 29 563
3311 -0.90176112911927087 1.6795663932008444 1.1922011829616317 255 229 71 0.1203481100623013 78 759 21 792 64 762 38 817 45 733 4 810 43 765
3314 0.94823261344196297 1.2598124790796972 1.6042323123492717 212 128 32 0.068673178967922688 45 4 98 26 29 8
3315 0.91108422518758103 1.2720793543067819 1.5907284997029916 190 94 26 0.23094816908803242 58 105 98 37 95 260
3316 0.91103616153793499 1.2716133083887193 1.5900576122002956 190 94 26 0.19876644975094851 58 106 98 38 95 259 5 176
3317 0.28189568649639063 1.7546781918853844 2.8239151084035665 72 47 38 0.34576776132894876 45 155 64 108 98 96 95 115
3318 0.82131149279158144 2.2331991919633429 1.6284549216833046 97 68 55 3.2898902243683086 58 253 98 120
3319 -0.042731447227030886 1.848120094453807 1.582529379706022 162 136 46 0.2120358056434391 77 217 98 186 95 76 92 67
3320 -0.25404844315925018 1.8859783776047006 1.5481625100028513 146 115 40 0.30518148315569682 58 238 98 207 95 54 29 189 8 131 88 138
3321 -0.92548322584912812 2.2740398212850126 2.2899598824755842 146 97 72 0.19304188030849143 58 180 98 230 95 10
3322 0.70515034991994852 0.90405878954065477 2.2250159708339465 166 114 37 0.097465071256111563 58 322 98 262
3323 0.59025745506522131 1.0132629046830064 2.0528310655656168 254 220 62 0.086879186155262356 58 334 98 306 95 400
3324 0.30212769787827826 1.346209363482713 1.4203716533867494 67 72 91 0.32592429460090599 58 453 98 442 95 633 20 575 5 529 15 554 92 325 55 322
3325 -0.14381182387180941 1.9867270966807788 2.5943357872876125 148 98 74 0.12459974319522253 77 450 98 448 95 323 5 311 92 353
3326 -0.23250447660620194 2.0027290631353223 2.5885958026265832 51 34 33 0.15571974397981539 45 211 58 95 98 454 95 65 29 298 5 93
3327 -0.2746260807673877 2.0608151342403587 2.4747800880637238 64 46 39 0.32814510802121305 78 712 98 463 5 90 92 336
3328 -0.058725830359721204 2.6879970175881427 1.5136549631299139 80 91 94 0.21778903461759899 26 767 98 495 95 601
3329 -0.81679425050432641 1.8813666680723471 1.7287514355799283 252 230 69 0.1827997980867142 45 729 98 505 95 278
3331 0.53506166868467597 1.0115317365511423 2.0722058479967149 254 209 60 0.3242280436730236 31 608 98 538 95 670 90 708
3332 0.35985979610784152 1.7709996069610512 2.7727360135936889 147 99 74 0.32417313885885729 26 677 98 553 29 785 20 804 92 644 5 394 62 529 27 410
3333 0.25828027237496376 1.9555114000098162 2.6289190098275794 231 215 176 0.27839940263334884 45 660 98 575 20 779 29 781 55 781
3334 0.16460372773824605 1.951738452595037 2.6617445484127806 231 215 176 0.09635585261718585 45 671 98 581 29 795 20 798
3335 0.76068358128488001 2.4048540297062262 1.8687853348126242 214 197 160 0.11142688070432748 77 665 98 582 95 672
3336 0.69918906522175273 2.4369851641769342 1.8489702783294619 218 200 164 0.10777105384921776 58 663 98 586 95 666
3337 0.51639036795123994 2.2343611286067668 1.6593058294908758 209 194 159 0.62519655867864221 77 850 78 441 98 595
3339 0.96649295259335166 1.0305593619859705 1.60063622056354 254 229 70 0.90292832963955549 47 979 98 668
3340 0.25629583584205251 1.9548210575009703 2.6389930854392052 233 216 176 0.27369801886853601 45 833 98 725 85 749
3341 0.29194821909993474 2.0345663571927464 2.7025780149529304 233 216 176 2.0940834233223735 45 834 98 726 85 755
3342 0.68191148425042325 2.4330507405126398 1.7810189874318603 90 58 46 0.12947009625259298 47 1264 98 747 95 796
3343 0.41478598302443354 2.5423013500007063 1.6273253989458807 94 67 54 1.0279393912352641 78 906 98 763 95 776 5 687 92 929
3344 -0.00070610687968637037 1.7444808105765464 1.7432852299270301 149 118 41 0.2274050912516524 47 989 98 765 20 898
3345 1.0783818984219495 2.3660361978417304 1.8582616958114466 102 71 58 0.19452425715160118 58 929 98 843 95 933
3346 0.19920466403586223 1.7618309554347871 2.8474726218741426 0 0 0 0.56127878404537557 45 956 98 846 95 772
3347 -0.3624508393111826 1.9240596438036586 2.5792650777055917 0 0 0 1.0830760377569797 4 1048 98 871 5 942 92 1012
3348 -0.49284136505844495 1.5334251179723586 1.3511114993503786 255 237 72 0.085742367114851434 77 963 98 892 95 871
3349 -0.45822059870140081 1.5635453542206488 1.297299276949162 255 238 72 0.19647159589544483 77 966 98 893
3350 -0.55315347041677598 1.5569130100917246 1.324233610395497 255 237 71 0.24737438171952589 45 984 98 900 29 1042 20 893 55 837
3352 -0.70963278321101675 1.5667633418277578 1.3218230040182219 255 236 71 0.13062483648411888 58 939 98 915
3353 -0.77568547627031803 1.5918728699701801 1.298504714802178 255 236 71 0.20780609675793352 4 1073 77 985 98 916 95 850
3354 -0.66965410911985512 2.986742940228198 1.0872384326701623 130 89 70 0.73378445719415319 45 1015 98 930 95 864
3355 0.30265478901428261 0.92629390654444255 1.6976404690042481 191 202 230 0.2120360699610872 45 1035 77 1027 98 945 95 992
3356 0.078351951200465522 1.712608769959252 1.4366734492494309 205 177 60 0.040272391017628646 58 1030 98 965 95 987
3357 -0.12456707455795962 1.9815638269784916 1.5500791496960626 80 63 19 0.31610614748192251 58 1036 98 973 95 979 92 919
3358 -0.31475980400419662 1.8098702679436827 1.7172913620004078 255 220 65 0.93226809722745119 58 912 98 974 95 964 29 1131 20 1089 92 1049 85 989
3359 -0.33855894555178945 2.7973546702319361 1.3245798581512715 52 41 42 0.21545958402940754 78 1114 98 983 95 962
3360 -1.144861216113318 2.2849239921441868 2.2105131544798939 150 101 76 1.0691674079245015 45 1071 98 986 95 943
3361 -0.053624949802485694 1.94783438079174 2.5934489098556623 227 212 175 0.64494558411230696 26 1151 98 1003 95 984
3362 0.17385622320652858 1.7076918133810026 1.7830355959236663 156 125 42 0.37539217232937561 58 1068 98 1005 95 1048 29 1116
3363 0.17236558677861871 1.6943540561366619 1.7721673762688157 156 125 42 0.3044768907428424 58 1069 98 1006 95 1049
3364 -0.27727737215144271 1.8652605959620869 1.4915279038800477 20 17 19 0.36921742280975733 58 1034 98 1014 29 1125 8 1154 88 1145
3365 -1.1724340065715444 2.3859973026232826 2.3673233082897562 0 0 0 0.52334895814664828 78 1164 98 1020 95 944
3367 0.44557971142396058 1.0673896579362161 1.4566429514066894 19 25 34 1.055484678847008 4 918 26 864 78 846 38 878 21 907 45 790 64 646 98 711 58 751 77 798 43 699 29 862 5 694 55 575 92 745 7 667 100 330 33 463 25 457 85 491 16 385 71 365 9 3
3368 0.44541414815099395 2.518156364458318 1.5940407389025473 32 25 24 0.22961570023571934 31 351 65 362 58 276 98 164 78 461 38 467 21 480 45 153 64 510 95 123 69 497
3369 -0.83195633022244797 1.6196409347916403 1.2751762854566175 255 233 72 0.47800395433279746 31 802 65 832 98 919 26 1047 78 1049 38 1093 58 952 77 991 21 983 4 1077 45 1011 95 845 29 962 20 916 5 627 92 679 8 1023 88 1043 55 556 7 733 100 575 96 327 33 205 56 601 44 682
3370 -0.68090965419311433 1.657074971487112 1.1716441258474097 175 131 41 0.2112554015928762 45 481 95 7 5 2 92 3
3371 -0.5400276559051147 1.5455166728580723 1.5593300046127894 133 132 143 0.057655089665564041 98 224 95 15 5 19 92 26
3372 -0.34236618355918458 1.6492099696369213 1.1831258544488259 255 238 63 0.25260017560533815 98 227 95 35 5 15 92 13
3373 -0.17677502376433121 1.9724618248600045 1.5411531665859375 112 70 16 0.084614070835865848 98 204 95 61 5 49
3374 -0.17677502376433121 1.9724618248600045 1.5411531665859375 112 70 16 0.084614070835865848 98 205 95 62 5 50
3375 0.091157098701959649 1.6617218537714495 1.4754562340884219 103 86 21 0.4413438755329826 26 130 98 461 95 95 5 68
3376 0.091157098701959649 1.6617218537714495 1.4754562340884219 103 86 21 0.4413438755329826 98 462 95 96 5 69 26 131
3377 0.16638868070630347 1.7516213432147734 1.382920790068739 103 120 158 0.092570433720051581 98 169 95 104 5 70
3378 0.2375283542954677 1.8227231535222308 2.7772013354040115 44 33 34 0.240829891679083 45 424 95 109 29 521 20 538 8 614 88 630 7 120
3380 -1.1110711347085209 2.3812197947193492 2.1738697033943346 207 196 164 0.054466347119480903 98 512 95 269 5 236
3382 -0.471135408465224 1.6827022656751798 1.1176352035347827 253 230 70 0.56000695084622587 98 238 95 286 20 379
3383 -0.54114856962828073 2.6099198817371794 1.2252890159676686 6 6 9 0.4111709369478197 98 516 95 287 5 9 92 267
3385 -0.33971682923336305 1.8431294034407528 1.8022131661751506 255 191 42 0.21206049443853534 98 485 95 309 92 303
3386 -0.069240026842325497 1.4606587348469682 1.8173725797104816 134 94 22 0.22057043059373835 98 452 95 324 5 292
3387 0.17276303302763385 1.7238332776041245 1.6922841212046731 100 97 106 0.21468258644263435 98 449 95 338 20 410
3388 0.43821436093162736 1.6732868072906537 1.8576955708185894 15 8 3 0.21275458238636819 45 100 98 578 95 354 29 430 20 608
3389 0.85547238805384351 1.2870784705955531 1.5833560963015467 255 232 65 0.19022418488968201 98 373 95 523 20 324 5 391
3390 0.85451414816846083 1.2822671376965273 1.5798310321641569 255 232 65 0.03372594625586977 98 372 95 524 5 392
3391 0.86587248128851191 1.2544275280125219 1.6230643127747966 254 235 68 0.023478872858020319 58 410 98 342 95 530
3392 0.9230083599126846 1.2620449922839936 1.6044264585741328 255 232 65 0.29328223316030394 45 6 58 102 95 536 29 10 20 319 5 417 92 427 8 9 88 9 55 340 100 350 96 347 33 258 25 272 17 83 85 352
3393 -0.63441515585970021 1.5825681670412644 1.4920883437574635 253 235 70 0.69915353612514131 98 897 95 554
3394 -0.58455035311038794 1.5846515025505983 1.5609975274643033 92 86 96 0.52509111852185797 98 791 95 561 5 235 92 276
3395 -0.41160957284751365 1.7788753899940173 1.9151291130103707 184 189 212 0.36131992077198777 98 618 95 578 29 804 20 719 5 506 92 722
3396 -0.12096731762017085 1.4592334580080888 1.8756014195841091 92 85 80 0.18674671163697418 98 457 95 598 92 322
3399 0.25182141413717896 1.8500193792208219 2.7543191659766375 108 74 60 0.62418355412985926 98 559 95 630 29 794 20 806 92 632 8 611 88 627 55 298
3400 0.47876295944918956 2.5173061896836386 1.6661512311746174 115 76 57 0.23217480723921319 98 602 95 638 5 536 92 577 78 458
3401 0.35152981991585691 0.9381238776867894 1.6976261468563669 125 98 23 0.32291916250717956 45 361 95 644 5 547
3402 0.65167135304919599 2.391295894967131 1.9136073038385815 220 204 168 0.1628104121226725 31 741 95 662
3404 -0.8957890527977046 1.3553854393016638 1.6158011696181047 0 0 0 2.2103017642260836 64 958 95 715
3406 -0.21450344023431772 1.7991623488735098 1.6532299611002506 216 174 53 0.24647457948808837 98 776 95 745 29 926 8 1013
3407 -0.13732460003058253 1.8071573063412478 1.6379677457882751 197 165 50 0.14856253854753862 98 773 95 746 5 669 92 727
3408 0.12210370068469252 1.7114702162515314 1.7332714281563535 146 120 42 0.15458329538829579 98 757 95 758 5 678 92 738
3409 0.097174996199032637 1.9712691167351755 2.642090953380746 236 217 176 0.16308474412476423 98 740 95 760 29 961
3410 0.5164259467325385 2.2659259016779636 1.6239891133105377 102 67 52 1.4118721566382879 98 754 95 787 5 538 92 581
3411 1.3341843252537702 2.2437939680427683 2.0179831700683448 147 101 76 0.50122910474389804 15 934 78 645 95 834 5 767 98 687 32 815
3412 -0.45724860644531645 1.5623035644849412 1.2962970811339862 255 239 70 0.087415788104227427 98 894 95 875
3414 -0.35896775913493367 1.6531846475544223 1.1938851207451897 247 217 67 0.23246152365249365 98 890 95 883 5 838 92 908
3415 -0.25790213086034774 1.9170054628370659 1.5040589448121515 12 13 16 0.31638442685650436 98 881 95 886 5 667 92 718
3417 0.12409851038558625 1.8010279077805145 1.6198209510100334 210 176 55 1.9269825580873958 98 870 95 898 20 1000 29 1011
3418 0.10832230355117888 1.6461933055944389 1.5162824448958445 210 176 55 0.26596191425252158 58 913 98 869 95 899
3419 -0.63636899925503609 2.0703145761196478 2.4066416618732638 107 73 59 0.19130039152979739 98 975 95 956 92 921
3420 -0.36004129467015916 1.8072120260906634 1.6603474289256133 14 15 16 1.2601781138239809 98 1013 95 961 20 1088 5 921 92 989 55 1073 100 1074 96 1009 33 869 25 829 17 720 59 800 85 869
3422 0.061450297096649106 1.6844239961869658 1.4973641732464245 102 78 20 1.2084677795807859 77 1043 98 1008 95 986 5 672 92 729
3423 0.074846275844858173 1.6257924248176558 1.5663909565164134 201 171 56 0.31127601100314256 98 963 95 988
3424 0.14730251803343908 1.7792269055611718 1.7054549591414059 30 25 28 0.20968360167527866 98 961 95 989 20 1075
3426 0.59443536473861136 2.4967627629910862 1.5541619139343503 0 0 0 0.41321234164556364 26 1105 95 999
3428 0.048792541941343644 2.1111733396544166 1.4753629339282297 16 25 38 1.9457996316528057 15 1176 98 1058 95 1070
3429 0.6438599266339895 0.88985139499152521 2.1497186459816895 243 195 57 2.7804416401470071 78 1171 95 1076
3430 0.59507176143041929 0.97567842525962412 2.1108117570784386 250 197 51 0.18393855698218151 84 509 90 387 31 366 95 184 58 8 98 20
3431 0.54426507803780555 1.0056574010588293 2.0758151668005045 224 164 37 1.7993199927171235 84 504 37 414 31 373 65 389 58 330 47 580 31 609 65 610 98 315 98 537 95 382 84 798 90 709 37 715 41 609 15 582 95 671 5 175 5 717 92 214 92 777 62 430
3433 0.12682508024190986 1.7583464971711233 1.3931123208525906 101 111 137 0.18205790594045979 31 541 65 535 95 334 58 660 98 607 29 419 5 286 92 306
3434 0.38217043270861917 2.5667568913624543 1.5858569060322989 29 22 21 0.4420960690412879 58 508 77 483 4 549 26 503 78 470 38 476 21 496 45 425 64 526 98 465 95 113 94 541 36 282 54 520 46 472 60 561 47 550 83 726 90 282 37 321 31 352 65 583 43 550 29 85 6 222 69 506
3435 -0.22981741319175203 2.7856319632272952 1.2570847847716276 53 40 36 1.0388158978732533 77 1070 98 982 4 1100 78 1112 38 1146 21 1104 26 965 64 1148 95 970 43 1094 58 862 5 842 69 908
3436 -0.76904834512569065 2.9287585075039835 1.2234290388590237 134 137 129 0.69695584877034189 54 1467 57 1075 3 910 91 1037 81 991 53 1462 50 1205 60 1494 47 1148 83 1324 90 905 37 934 95 860 41 781 15 699
3437 -0.24918846200723205 2.8842975293759054 1.2165027407896087 0 0 0 1.1030590816665382 38 1097 45 988 95 887 37 1200 58 988 29 1017
3438 -0.4338719970615158 1.6713761403121303 1.1544348965227957 255 221 62 0.0072468264721570422 98 905 95 955
3439 0.38879299127020611 1.1563582227003137 1.4192125304179566 142 155 186 0.19885655224832538 4 15 64 6 43 7 69 5
3440 0.17278173022621743 1.3710871936493314 1.852320665397954 110 80 20 0.12561592000883928 64 18 43 24 69 31
3441 -0.61620183201461165 2.1019726265053835 2.4118276425197522 39 24 19 0.23539661487061522 78 220 43 201
3442 -0.69837916646696363 2.0780757759203055 1.1733793836962465 61 72 98 0.35917544528308759 4 321 64 259 43 202
3443 -0.95213634965517158 2.0538892138351614 1.5757654804502195 122 110 31 0.043092468182628817 64 281 43 229 69 234
3444 -0.73813014955076572 2.2249372632381967 1.3044398597519766 162 132 35 0.10971226847639805 64 280 43 241 69 236
3445 -0.72437855312573407 2.3887272209139625 1.2996397469345342 61 58 31 0.11849278643121809 64 588 43 268 7 241
3446 -0.72437855312573407 2.3887272209139625 1.2996397469345342 61 58 31 0.11849278643121809 64 589 43 269 7 242
3447 -0.3564422108786382 2.8158006094176278 1.3005281790698104 25 19 18 0.36066174338129936 64 308 43 295 69 337
3448 -1.0285752172283404 2.4737645217629898 1.9925759514653729 121 118 102 0.15343204369014285 21 355 43 316 7 338 69 386
3449 -0.93426348737871456 2.6180052500825108 1.7298710623940923 76 67 52 0.066011063323688349 64 366 43 336 7 329
3450 -0.9325446199482228 2.6643189682577524 1.4723100396719737 80 86 83 1.3953624352471368 64 380 43 358 69 401
3451 -0.99813186939176424 2.7156832747312087 1.5533351822943924 126 127 117 0.10283884060597781 36 380 64 390 43 366 69 436
3452 -0.52976026647844243 3.0574386454772267 1.1878459258090324 136 96 72 0.37396515221189935 26 603 43 368
3453 0.45909971841853331 1.1394578585367574 1.4094931508623156 62 68 83 0.40328275113302892 64 3 43 375 69 4 10 8 66 10
3454 0.0062035855160955042 1.1755074362422073 1.6993528009292687 241 207 68 0.12598683358480589 64 407 43 379 69 15
3455 0.0062035855160955042 1.1755074362422073 1.6993528009292687 241 207 68 0.12598683358480589 64 408 43 380 69 16
3456 -0.70173443033364125 1.7302999130306886 1.0945389251923399 254 233 91 0.2727759014684531 4 804 64 746 43 520
3457 -0.77447838399463809 2.1035559910451602 1.479506352504623 156 127 34 0.20967631244565046 64 789 43 579 69 519
3459 -0.33992274771690867 2.7990499922520033 1.31032590277059 56 45 46 0.15969890968674963 64 594 43 627 69 578
3460 -0.5804649291956121 2.7194564677462454 1.4063900326192884 81 85 78 1.232887709925683 43 642 6 829
3461 -0.93479632310894223 2.7621480978569095 1.5275040075788693 83 90 87 0.19869898703713171 64 388 43 685 69 440
3462 0.63924522167631426 1.1444907748220092 1.3349988925632543 119 105 41 0.25413828317970277 21 895 36 797 64 640 43 695
3463 0.26328037418546707 1.3980365175613849 1.4500874510846915 94 89 88 0.57152407675968042 64 1043 43 712 69 963
3466 -0.69177041090065572 1.7490173412786671 1.0764357944050051 106 84 18 0.067660937778335761 64 750 43 759
3467 -0.2785459105330777 2.7515672950731438 1.3218255644187613 78 59 54 0.1922892330820212 64 806 43 829 69 565
3468 -0.30875386972418534 2.8026062478434319 1.2427457317498001 109 77 63 0.12567342963628933 64 809 43 834 69 574
3469 -0.53883484724077246 2.8052380382636066 1.3783647894611184 86 95 93 0.19768123016375502 64 833 43 866 7 795 69 792 2 601
3470 -0.73372710043493972 2.7076930591212758 1.5702516418936123 101 103 95 0.17298849160954843 64 847 43 870 7 816
3471 -0.9822253949938442 2.6075617006678509 1.7597817381746823 124 123 111 0.19844491260024269 64 866 43 879 69 815
3472 -0.61515413072923986 2.8822984723703811 1.274122315214369 129 132 124 0.13471518635230403 64 619 43 887 7 611
3473 -1.1260144094362718 2.5853386103726383 1.8066834620813801 196 187 163 0.13988935067327657 64 890 43 893 7 851 21 881
3474 0.40357255327093361 1.1884806871370575 1.4323088431721156 22 30 39 0.12951840553342897 64 652 43 924 69 845
3475 1.199864251801283 2.2516584785130562 1.9988485692093574 50 31 23 0.26754481175727934 36 851 64 939 43 938 6 159
3476 1.1427657752863261 2.3214461721763993 1.8322582910980401 0 0 0 0.38622016457952119 4 935 43 940 69 716
3477 -0.81062575787636426 2.1834930728840831 2.3250266256770717 73 60 56 0.28830828439237771 64 986 43 980 69 907 2 661 10 370
3479 -1.0532350728544404 2.3981983644848635 2.0526570704804339 242 229 197 1.1563088433738036 64 842 43 1001 69 927 2 594
3480 -0.41097551016330014 2.8793331130755062 1.1942650122413476 121 85 68 0.29976699122557598 64 1010 43 1008 69 782
3481 0.30671700807262831 0.89339671548740873 1.8543201243873277 148 128 46 0.53197053217842549 64 1117 43 1035 69 954
3482 -1.3338259854905126 2.4195590307085575 2.107198569202271 131 96 79 0.78438522775478225 21 1047 43 1107 7 1048 16 1018 56 967 71 966 9 873
3483 -0.45751672711145758 2.7492603783309297 1.3109069821276376 85 95 98 1.8075235015801252 4 1106 43 1148 69 770 64 821
3484 -0.76161957582826734 2.1260901627224156 1.4414199706153579 127 101 27 0.39542382397949227 64 1207 43 1171 7 1106
3485 -1.0020611676794797 2.371071336306299 2.0939793506395343 235 225 194 0.66180514378292454 64 1189 43 1175 69 1097 2 812
3486 0.63058893396755722 1.1010719157531674 1.3571636653388992 156 133 39 0.44556309187826365 83 1064 4 911 26 858 78 831 38 864 21 892 64 911 43 921 36 973 46 1293 3 756 6 744 51 617 76 702 13 721
3487 -1.3011634222916939 2.4270929609328968 2.074695716322374 222 211 177 0.58641574473999414 36 314 94 414 54 397 87 420 46 406 53 247 60 856 83 728 4 868 43 882 4 1009 77 750 26 984 78 982 21 1046 64 1031 98 660 6 272 13 274 7 986 69 826 16 1015 71 881 9 803 2 483
3488 0.088489877257618685 2.648695008594304 1.448155261754789 34 28 33 1.4853326619715779 58 855 77 876 4 988 95 756 43 1078 26 938 78 931 5 670
3489 -0.6171035236167588 1.5705875149577952 1.2848582261493617 255 231 70 0.96950611915486495 4 970 26 1040 78 923 38 965 95 859 98 910 60 1249 31 809 65 1002 58 943 45 879
3490 0.97217956461226485 2.2345699412946098 2.2127475985410197 230 214 175 3.1018796216328042 58 776 43 738
3491 0.72792868376782227 1.0644433903339978 1.2711410259870279 244 204 62 0.72634500961180803 4 1179 21 1131 43 908 38 1041 7 1049 16 1020 34 995 71 969 44 1155 9 703
3492 0.92233043675861226 1.2419015138984655 1.6630505834604892 211 135 33 0.043483186940247373 58 84 29 16
3493 1.0506916649377902 2.6094773022495659 2.2186682342967092 0 0 0 1.4679389521908748 26 114 77 443
3494 0.60879118144570898 0.95042271017244595 2.1119860650985514 151 90 24 0.74369784955589491 45 31 29 103 20 642 96 150 100 467 33 119
3495 0.3366998223207196 0.91955816751342345 1.8182071077014519 172 138 34 0.18327324208711074 45 46 29 104 20 150
3496 0.041327853967548983 1.2036250578495229 1.8298223953899937 116 112 115 0.099036830392988148 45 130 29 166 20 181
3497 0.72807434982181274 1.7190860813955717 2.9259983681905122 235 217 177 0.31766973931958992 45 82 29 202 20 270 92 509
3498 -0.1766378281132914 1.7762764296644058 1.7339828829658412 144 113 40 0.5294773987176794 98 475 29 203 92 307 5 281 88 160
3499 0.65825861044294798 2.1445834423866774 2.9065621747216683 226 210 172 2.529932259937405 45 127 29 204
3500 0.2176935186366131 1.9596119961497929 2.6374759526114073 230 211 170 0.20435174475132686 45 168 29 250 55 278
3501 0.30989823326250143 1.8008734530428172 2.7840512532806425 29 21 22 0.22423553570626406 98 423 29 252 20 536 92 453 55 302 85 242
3502 0.17759072846404192 1.9492760549672286 2.6792378313485714 215 200 161 0.16639449251252766 98 119 29 256
3503 0.13853633356217998 1.9522324370210649 2.6743232269829722 225 209 169 0.19372299500964543 45 175 29 259 20 278 88 375
3504 -0.64231019166979841 1.8207250220153703 1.7761756939376596 254 238 65 0.1890617476193428 45 253 29 279 20 224 8 300
3505 -0.80745391983928605 2.2013475942591638 2.3204340759533109 38 31 33 0.2702987478808459 45 283 29 322 20 302 8 435 88 435 44 634
3506 1.0390038480045101 1.2820064230854571 1.6156663754402998 193 140 42 0.098617944653847128 45 323 29 332 20 313 8 451 88 449
3507 0.93242835087032905 1.2541589761796743 1.6308935864418979 218 136 33 0.11050079844370166 45 328 29 337 20 323 55 346
3508 0.58205676115122129 1.1368394420204126 1.4443610224350651 151 122 30 0.19801080192894599 45 26 29 359 88 12 8 10
3509 0.54389460175885307 1.0531382154200881 1.4960369523185513 120 104 27 0.17327566113552884 45 352 29 370 20 344
3510 0.27934005205934231 0.89557781482410748 1.7424733608437843 72 71 73 0.26490771350418185 45 52 29 431 20 444 8 58 88 70 55 409
3511 0.65982433968611276 0.946187542029581 2.2030691903332946 200 140 39 0.20090154742052077 45 349 29 433
3512 -0.4628042181010345 1.5943667544177973 1.2453919610864301 255 229 70 0.03973811670309902 45 457 29 472 20 401
3513 -0.55306268512224466 1.6694729181016512 1.1368236213120817 255 226 69 0.042584390624332669 45 465 29 473 20 391
3514 -0.52790371675708614 1.6161826926284395 1.2164120304854216 255 227 70 0.085426406858083712 45 461 29 476 20 404
3515 -0.93256703630342863 1.6712790440622853 1.253544131600498 253 235 73 0.036572401066819499 45 735 29 540
3517 0.92128018093089326 1.2121629748573712 1.7287318318631646 255 230 67 0.25175200928813807 45 523 29 576 88 679
3518 0.58216337162917919 1.0906087420610528 1.4458897430499094 117 102 27 0.014713510236135076 45 538 29 582
3519 0.84850742352539776 1.1467299119764782 1.8350200482436088 255 232 67 0.39457639320300353 45 525 29 588 8 678 88 689
3520 0.77386667873253301 1.0812200787241939 1.9062001127849315 255 234 76 0.28718175330876583 29 601 96 429
3522 1.3935766708559925 2.8445138379288624 3.627688461026811 233 219 182 0.34581965318682295 45 580 20 749
3523 -0.005235126235024111 1.6887692604830233 1.7899467217673946 126 102 26 1.270880908719936 45 837 58 609 29 683
3524 0.73075973804502525 1.8450075953215812 2.7699329138096771 232 217 180 0.086958354985202879 45 583 29 685 20 734
3525 0.66558102476526315 1.8606333600419849 2.7388736134345679 232 217 179 0.09359652796538849 45 592 29 695 20 737
3526 0.66558102476526315 1.8606333600419849 2.7388736134345679 232 217 179 0.09359652796538849 45 593 29 696 20 738
3528 0.57090003296547676 1.8557494677489075 2.7676343875642044 230 216 179 0.10946572534441194 45 607 29 733 20 768
3529 0.39147880770973648 1.9384958029834605 2.6965540544878541 229 212 175 0.00019460477555016683 29 760 20 774
3530 0.42471378927586029 1.800374413647861 2.7930771416324021 92 62 52 0.27205635692428176 45 632 29 772 8 592 88 896
3531 -0.41455461463614118 1.7819858818625813 1.8371156494370577 255 230 65 0.46637181228059371 95 576 98 487 29 797
3532 -0.64513740116389329 1.8038981310912501 1.855191852383568 74 52 12 2.1068518348896528 21 223 29 821 20 761
3533 -0.6414711972223206 2.1138924157703549 2.3952616353580281 106 73 59 0.27356740075256752 78 748 29 834 20 825
3534 1.0507302326235886 1.18814397024676 1.7314731077546983 255 235 71 0.36005205194004608 31 815 29 850 47 675
3535 0.50984488268457551 1.0571528450854266 1.4354846443289384 107 87 20 0.67618006405558428 65 816 29 858 20 838
3536 0.94256336094362014 1.2022183652160865 2.2995829538415289 255 230 72 2.1671993168278547 58 714 29 879 20 640
3537 0.71501689645895672 0.89138608802562791 2.2474269116663752 253 233 72 0.39531743832519423 45 532 29 891 8 1147
3538 0.34748858728478815 1.77698893334019 1.7718209478612224 217 201 164 0.63044653517524374 45 410 29 893 20 603
3539 -0.4148684324361368 1.6063841782404258 1.2312450432191935 255 232 72 0.19700923544050739 45 865 29 912 20 869 8 973 88 990
3540 -0.51797471185710897 1.5882831806895137 1.2693972538299336 255 235 73 0.26406414405550671 45 983 29 931 20 882 55 826
3541 -0.023186828494649384 1.5270434752714681 2.0289325702571888 225 202 156 2.3923418863964274 45 669 29 939
3543 -0.58583429638303053 1.5292429225879651 1.3768345307814989 255 243 74 0.19246203793210981 45 989 29 948 20 907 55 572 100 589 96 649 33 221
3544 0.1978221529388588 1.9789787591718098 2.6098922594880603 238 218 175 0.37447471786849396 98 734 29 954 20 955 55 915 33 656 100 793
3545 0.1019998772260326 1.7748350239741546 1.7028542015527823 198 170 57 1.4932066394691694 58 911 29 1018 20 1005 8 987 88 1003
3546 -0.39422362111933396 1.7943422586327376 1.5500052360755208 255 242 72 0.25732407552420616 58 924 29 1039
3547 -0.55287913367735086 1.5580407337619588 1.3244675951671923 255 245 72 0.2826877358296635 45 985 29 1043 20 894 55 836
3549 -0.19670084567959464 2.0924601999429111 2.4822682237118521 215 198 162 0.49659845719255491 45 867 29 1073 20 1042 8 1082 88 1083 55 1033 100 1044 96 960 33 908 59 925 85 971
3551 -0.38491918146512094 2.1514644476523821 2.4026525316398835 220 203 165 0.14371714992902238 45 987 29 1078 20 1043 8 1197 88 1177 55 1101 96 1051
3552 -0.44546565474116934 2.1819291883880818 2.381641698437746 221 205 166 0.14685812683303173 45 993 29 1081 20 1044
3553 -0.5717064923320343 2.2138757969013074 2.3201657478171165 222 205 166 0.22986366862413082 45 1001 29 1084 20 1047 8 1203 88 1183
3554 1.0495238104245439 1.2626053264990416 1.5331245210586055 0 0 0 0.89571129172762864 45 1030 29 1093 20 1111 8 1215 88 1249 8 1271 55 1146 100 1111 96 1137 33 982 25 935 17 908 59 991 85 1014 73 1059 75 1155 23 946 18 922 80 1040 40 1060 11 1032 62 827 48 986 67 913 52 821
3555 0.63686011442540069 0.9821549488659983 1.3867157925429205 255 247 73 0.91552368942309337 29 1095 20 1059
3556 0.43110932825555104 1.0108255254800769 1.5028216054459884 189 201 232 0.58255750450319366 45 930 29 1098 20 1063 5 989 92 1057 55 1063 8 1219 88 1197 100 1061 96 988 33 929 25 880 17 866 85 940
3558 -0.081978200903114667 2.0512737165193888 2.4505929269676336 30 34 40 0.90845597910480491 45 964 29 1140 20 1101 8 1298 88 1273 55 1137
3560 -1.1770488435882598 2.5248843197087281 1.8467064351213356 177 171 145 1.4459154467196291 26 1069 29 1152 77 1015 56 1111 34 977
3562 -1.0918043619924349 2.2372244696732171 2.296447947480893 0 0 0 1.2589624826360821 58 1019 29 1158
3563 -0.12209800093444681 1.7153293582234497 2.1368676490559224 25 24 27 0.81299518540986571 45 1051 29 1184 20 1130
3564 1.0999206649801261 1.2601165191384849 1.627282172642001 204 144 39 1.0424413734177362 45 1074 29 1195 20 1137 8 1272 98 998 88 1250 55 1150 100 1115 96 1140 33 985 25 959 17 912 59 992 85 1016 73 1029 23 948 18 923 80 1012 40 1061 40 1092 63 964 11 1033 62 852 48 987 67 914 52 708
3565 -0.14219055919658111 1.5198233783857193 1.8575448193665522 251 205 61 0.48777503201203398 45 1136 29 1217 20 1171
3566 0.018101658194206428 1.9158819413669459 2.3430852039032404 24 23 25 1.9102128913180998 29 1218 20 1173 55 1180 8 1345 88 1317 33 1044 85 1034 17 952 100 1182
3567 0.46107635995237384 1.0483913991752511 1.6102382002722317 126 101 25 0.64586459853703393 45 1148 29 1223 20 1176
3568 -0.92361149424931011 2.2081961290194108 1.8983123591743229 26 29 37 0.76093584023645011 45 1147 29 1225 20 1174 8 1347 88 1319 55 1174
3569 -0.30173133323566348 1.7493510240282939 2.0606242927755023 19 23 30 2.1896008008387411 38 1219 29 1230 20 1183 85 1036
3570 -0.037419838505536637 1.7420617707932808 1.7507473635483037 170 138 40 0.23598056051258856 60 788 77 674 38 743 78 685 45 675 58 456 29 681 31 648 65 650
3571 -0.71586441712388993 1.611257758284514 1.2732958587570578 254 228 70 0.2693581916019957 78 510 38 539 29 510 77 725 4 790 78 732 21 774 20 450
3574 0.13469483262430965 2.5909153125028808 1.4974158436069243 93 103 103 0.22745324891489174 29 438 20 48
3575 0.1037598308473346 1.7211707437221657 1.5016994925936356 100 92 94 0.20927010224043943 29 434 20 74 8 704 88 721
3576 0.1037598308473346 1.7211707437221657 1.5016994925936356 100 92 94 0.20927010224043943 29 435 20 75 8 705 88 722
3577 0.35410882282287703 0.99385531462262489 1.5625739503225096 18 26 39 0.19702845594477222 29 65 20 76 8 38 88 37
3578 -0.046632595238027638 1.8079024835902195 1.6487367772298029 139 111 41 0.31990973139127826 29 154 31 515 20 125
3579 -0.13859108860315927 1.8038805112125667 1.6841054992461699 141 115 41 0.46800051447466073 98 189 20 144 5 279 95 320 92 65 55 62 85 294
3580 0.2961764259119633 0.71552100233286131 1.8767128485919011 161 135 37 0.12146905854558437 29 445 20 179 8 76 88 524
3581 -0.31592991052724823 1.8259007928686632 1.8175853645209299 41 28 36 0.72390341364015864 29 506 20 189 55 401
3582 -0.12404904023654317 1.4616728797629244 1.8742497262139077 77 70 74 0.30894429748490587 29 223 20 192 8 556 88 583 55 432 100 102 96 120
3583 -0.93900402692259544 1.9000153923598957 1.4899927706573972 125 1 1 0.66209270207361248 29 822 20 199 8 1052 88 1066
3584 -0.96665707830974434 1.988693203284053 1.6019512145300874 254 234 70 0.095549039017051959 29 551 20 222 55 50
3585 -1.0117837985952829 2.2959611229913608 1.9355438813608459 192 182 154 1.8120513467850601 29 836 98 248 20 277 8 418
3586 0.55741635319753713 1.7046172999434086 2.9394815629312405 77 52 44 0.17316395412327915 29 241 20 286 8 353 88 346
3587 0.010730478364449014 1.9358227856162102 2.6648856006044537 231 216 178 0.2625105717110931 29 275 20 292 55 538 100 259 96 275 33 429
3588 1.1287047175133906 1.2616524017594017 1.625021417863256 255 237 73 0.055007161937490875 98 0 20 310
3589 1.0145033938894388 1.2555265235690389 1.6339811854899642 255 226 65 0.089206237576842137 29 334 20 317 55 589
3590 0.5242806400664175 1.1142675481846565 1.3471991095795728 192 203 230 0.082766665759762728 29 350 20 318 8 4 88 3
3591 0.51694167307187866 1.1030293816191488 1.3701843020191939 69 69 73 0.13719812389293745 29 355 20 321 8 5 88 7
3594 -0.43757914092492406 1.5421920700799518 1.3248521221088314 254 229 70 0.078214934814496387 29 475 45 451 20 422
3595 -0.31959007830930714 1.825674701590706 1.6555567372144271 247 200 60 0.16525972320550295 29 495 98 488 20 465 55 52
3596 0.61659876119289603 0.98693383335128748 2.0821953727116438 254 224 65 0.30010785360069558 29 95 20 468 55 501 33 352 25 375 17 375 85 431
3597 0.31053790125003933 0.70640079894918273 1.8806861121086571 255 250 79 0.14952036916304381 29 442 20 479 55 464
3598 -0.16583272509649705 1.4780768819780183 1.8579960556457709 110 104 102 0.49469972555122738 29 498 20 492 88 188 8 193
3599 0.61858458371555924 1.7970039902188151 2.8229337557879202 121 113 97 0.15459454464569633 29 485 20 517 88 607 96 297 85 256
3600 0.24048565766051463 1.832079472311289 2.7823000587393354 48 35 34 0.25213419042188245 29 522 20 539 8 615 88 631 55 301 100 560 96 621 33 171
3601 0.21027790014709383 1.8210520939254209 2.7881232595585468 109 74 58 0.17157475936696623 29 526 20 541 8 616 88 633 55 541 100 561 33 438 25 428 17 461 59 506 85 448
3602 -0.58772329705072979 2.1009563954116652 2.4283177612110474 106 73 58 0.052655380658296683 29 559 20 548
3603 -0.83238419985844669 2.2052477394338883 2.3333651593680944 106 72 59 0.21195444089038123 29 561 20 552 8 643 88 661 7 613 44 637 56 545 16 618 71 559 9 242
3604 0.49276281271008404 1.1014638119963984 1.3581166403942795 47 50 58 0.51026653728720561 29 584 20 564 8 658 88 673 55 554 100 325 96 0 25 237 85 482
3605 0.49612754016378174 1.1109161566878012 1.3601437820565494 47 50 58 0.13476645015315578 29 585 20 565 8 659 88 674 55 555
3607 0.88769542259269119 1.7609513496643061 2.9147161546570519 232 218 181 0.0066012830025572247 29 674 20 750
3608 0.81448577437812442 1.7626777325796819 2.8748209800368647 232 218 182 0.37102818723949654 29 684 20 756 85 836
3609 0.064286750006367105 1.795206316628813 2.3791525444282029 229 209 167 1.1789059425915001 21 745 20 770 8 1180 88 1165 7 494
3610 0.44377811437629705 1.8910868107957048 2.7076465294158005 229 213 176 0.21482981859279393 29 750 20 771 88 867
3611 0.33369466345624271 1.8338507595385951 2.7517705447812073 53 37 32 0.39213640924272791 21 727 20 799 8 599 88 619 55 539 100 828 96 290 33 695 25 648 17 653 59 505 85 675 62 641
3612 0.59111269834471658 1.6999447420253984 2.9561550737134006 150 101 75 0.19527222562961002 29 763 20 807 88 901
3613 0.46601444761860594 1.7166752328842798 2.8807491271850516 149 100 75 0.17240828790470392 29 780 20 810 88 906 8 894
3614 0.26866718985184135 1.7728671834001111 2.7943504903579877 147 99 73 0.20555873802197377 29 796 20 815 88 915 8 904 55 810 100 839 96 874 33 703 25 657 17 658 59 750 85 681
3615 -0.56043746641386272 2.098967037864429 2.4107807773728487 46 34 35 0.32409467483919813 29 829 20 823 8 638 88 654 55 524 100 220
3617 0.93923309719015324 1.257015246794176 1.5643769209278757 255 226 64 0.69195954883047994 29 849 20 833 55 849 25 722 59 569 96 658 73 283 75 332
3618 -0.16546070560502368 2.0354963310115419 1.3611921461613654 162 174 203 0.26097552692834597 29 906 20 858 55 563
3619 -0.72290417158348075 1.7153018573751817 1.098326159992153 255 232 72 0.49002484722811274 29 941 20 875 8 985 88 1008 55 822
3620 -0.45650739896698939 1.5567440367627741 1.2926202446475341 255 238 73 0.019473729810236408 29 924 20 879
3621 -0.51653345915574334 1.5859726139191805 1.268797409916588 255 241 74 0.24757294208878911 29 930 20 881 8 983 88 1006 55 827
3622 -0.52538573850826742 1.5112401441172421 1.4069667992460124 255 245 71 0.17965365494549909 29 944 20 905 55 843
3623 0.88859604291776129 1.1599024502718955 2.3615063472899105 255 242 72 2.1132184249709702 58 709 20 921
3624 0.54527671151996993 3.5601240580608779 3.4336818645089662 239 220 177 1.7150106508421012 31 881 20 957
3626 0.7721447733639768 0.75394309155078332 1.6264841346136796 0 0 0 1.6559670169992202 31 962 20 987
3627 -0.43652807182101938 1.6584658814089328 1.1447439737564202 255 230 71 0.2926634480780877 29 1022 20 997 88 1133 8 1141 55 975 100 986 96 982 33 916 25 870 17 811 59 867
3628 0.17410955157247851 1.8807525120605963 1.674654254002043 207 175 58 0.61182540320922252 29 1010 8 1146 88 1143
3629 -0.19920529615232332 1.8778931083480217 1.5306284771857328 254 214 64 0.9372556771335786 29 1123 20 1006 8 996 88 1013
3630 -0.77187965369656419 1.5818989323961936 1.2955069247921591 255 244 69 0.25892723136325435 29 1060 20 1017 8 1020 88 1041 55 834
3631 -0.509231558954095 2.1934671143020581 2.3472466135003778 221 204 165 0.098710444751705761 29 1083 20 1045 8 1201 88 1182
3632 -0.6273761249526344 2.2398304058098693 2.2930330401770873 214 197 159 0.5485656579263698 29 1086 20 1048 8 1204 88 1186 55 1025 100 1037 96 1043 75 994 80 787
3633 -0.87525204967676085 2.3339688405153249 2.1827888228404122 217 202 165 0.37815602697604672 29 1087 20 1052 8 1210 88 1191 55 1019 100 1031 96 948 18 637 44 1109 56 956 16 931 71 870
3635 0.40766775720574111 1.3151141667021742 1.4017640093393466 103 71 58 0.95615272870618573 29 1165 20 1062
3636 0.13990242961448646 1.7592914326000773 1.559398376766586 203 176 61 0.70507267745198621 29 1109 20 1069 8 1284 88 1259
3639 -0.33062237914901099 2.1487095188179208 2.3576987914898537 43 42 39 0.35184967012077673 29 1074 20 1102 55 1099
3640 -0.50492539059015873 2.2076661934538082 2.2785489019062424 41 41 38 0.14861562354063848 29 1144 20 1103 55 1095
3641 -0.93732401514277242 2.3458254855637937 2.1565961556923146 218 204 165 0.32312193526304911 29 1151 45 1022 20 1106 8 1264 88 1243
3643 -0.37864026064604078 1.831051802774817 1.7477873315433572 255 236 60 0.27620774011103255 29 1182 20 1125 55 1153
3644 -0.88903860622342945 2.0625272294965371 1.670456179748248 255 224 61 2.2083323364071989 29 1188 20 1128 8 1338 88 1311
3646 0.28389734631718816 1.3936580922954824 1.3678746117201563 236 204 67 0.36194386644110538 29 1199 20 1138 88 1279
3648 0.038978762778547171 1.8901169932642761 1.5389263946528073 29 29 30 1.6055676637646572 29 1211 20 1158 8 1331 88 1303
3651 0.35508192401685268 1.0523708834511385 1.8510111341909143 130 102 23 1.1915610822349834 29 1227 20 1181 88 1321
3652 0.82575488699886157 1.7429302108184888 2.9475080061442491 129 121 103 0.26624004515709232 29 1229 20 1184
3653 -1.1560280318941245 2.4694927632143173 2.0101618419875518 229 214 177 0.53147994118351749 4 1007 77 893 26 979 78 978 38 1038 38 1112 21 1042 45 912 29 988 20 970 98 805 95 716 8 1106 88 1104 55 879 100 663 96 749 59 342 73 376 56 958 44 1028
3654 -0.70886964879212599 1.5772177520550104 1.3249319953225649 255 234 74 0.88027378244869015 26 939 78 929 38 979 20 913 26 1042 78 1045 38 1086 21 1090 45 1000 29 1053 55 840 8 1015 88 1037
3655 -1.1734326442496681 2.3876872966329499 2.1367295006849192 204 193 162 0.61098323953070532 45 520 29 565 20 550 36 660 46 380 83 714 58 477 77 741 4 851 26 809 78 805 38 853 21 877 45 752 64 853 98 518 95 266 43 862 29 843 20 826 92 275 5 231 55 669 6 246 76 210 13 247 69 808
3656 -0.33894390197791674 2.8063472555084958 1.3195248364571006 57 44 43 0.20519576560009423 98 503 5 31 92 24
3658 0.49248575915748788 1.0322420175942286 2.0657919475674471 177 105 19 0.08859566467603408 95 363 5 162 92 200
3659 0.62488579252018916 0.9496287138656575 2.1180573176773421 255 221 66 0.091863066310596694 95 193 5 187
3660 0.74347373850335585 1.7473561951920271 2.8818261423251879 236 220 184 0.060194231773949836 15 276 5 218 92 261
3661 -0.13807328959548137 1.7935451132150684 1.6799631555259373 128 102 35 0.12859451944961334 15 323 5 280 92 66
3662 -0.0032508336746825892 2.6922742736195993 1.527811181641948 80 91 93 0.62525776193025806 78 518 5 282 92 58
